ply
format ascii 1.0
element vertex 1211
property float x
property float y
property float z
property uchar red
property uchar green
property uchar blue
end_header
-2.131847 1.056742 -0.473840 61 245 87
-2.160651 1.007657 -0.468578 61 245 88
-2.126507 0.975479 -0.476156 61 245 88
-2.131633 0.921820 -0.467853 61 245 89
-2.130154 0.897119 -0.486132 61 245 89
-2.135331 0.874829 -0.495454 61 245 90
-2.172164 0.835161 -0.528507 61 245 91
-2.161060 0.816726 -0.498218 61 245 91
-2.160663 0.785399 -0.505207 61 245 92
-2.143657 0.782019 -0.534050 61 245 92
-2.183147 0.753655 -0.506501 61 245 93
-2.138800 0.700311 -0.533451 61 245 93
-2.166105 0.691550 -0.553772 61 245 94
-2.133819 0.655781 -0.566412 61 245 94
-2.176090 0.631638 -0.532298 61 245 95
-2.137874 0.591803 -0.541940 61 245 96
-2.138598 0.551507 -0.564752 61 245 96
-2.122717 0.535439 -0.572999 61 245 97
-2.136877 0.499525 -0.590688 61 245 97
-2.163286 0.468810 -0.553214 61 245 98
-2.139567 0.416229 -0.557519 61 245 98
-2.105418 0.396011 -0.556734 61 245 99
-2.101478 0.366581 -0.584440 61 245 99
-2.093067 0.335122 -0.586887 61 245 100
-2.112746 0.303566 -0.605200 61 245 100
-2.119955 0.303750 -0.609878 61 245 101
-2.093803 0.272308 -0.608866 61 245 102
-2.092643 0.239007 -0.582452 61 245 102
-2.069020 0.214937 -0.602295 61 245 103
-2.067790 0.163278 -0.596317 61 245 103
-2.073438 0.136315 -0.600122 61 245 104
-2.048692 0.130908 -0.587000 61 245 104
-2.050089 0.117904 -0.575968 61 245 105
-2.039968 0.059062 -0.595443 61 245 105
-1.999156 0.026833 -0.613522 61 245 106
-2.031046 0.049135 -0.584744 61 245 107
-1.999802 0.005951 -0.608802 61 245 107
-2.001337 -0.042722 -0.582699 61 245 108
-1.987185 -0.028865 -0.600958 61 245 108
-1.986585 -0.086033 -0.587581 61 245 109
-1.949231 -0.079324 -0.596745 61 245 109
-1.958813 -0.105641 -0.593432 61 245 110
-1.915373 -0.153368 -0.580773 61 245 110
-1.917848 -0.148318 -0.591017 61 245 111
-1.914642 -0.170784 -0.594957 61 245 112
-1.886250 -0.206291 -0.597481 61 245 112
-1.895729 -0.231034 -0.573070 61 245 113
-1.871171 -0.234747 -0.586984 61 245 113
-1.853032 -0.287867 -0.579087 61 245 114
-1.833657 -0.281071 -0.604892 61 245 114
-1.809952 -0.330411 -0.564810 61 245 115
-1.797333 -0.333595 -0.578821 61 245 115
-1.779642 -0.384500 -0.591604 61 245 116
-1.790629 -0.393890 -0.590651 61 245 116
-1.751797 -0.423772 -0.566840 61 245 117
-1.754754 -0.401696 -0.580998 61 245 118
-1.723969 -0.466808 -0.554676 61 245 118
-1.720624 -0.453801 -0.552484 61 245 119
-1.683669 -0.498523 -0.542961 61 245 119
-1.666683 -0.491630 -0.565962 61 245 120
-1.660019 -0.513676 -0.555213 61 245 120
-1.646218 -0.544337 -0.533204 61 245 121
-1.632587 -0.535772 -0.533612 61 245 121
-1.623360 -0.575816 -0.519641 61 245 122
-1.583548 -0.604954 -0.509416 61 245 123
-1.557454 -0.617929 -0.537238 61 245 123
-1.563898 -0.641384 -0.521320 61 245 124
-1.543004 -0.629220 -0.519823 61 245 124
-1.524668 -0.661943 -0.499466 61 245 125
-1.515503 -0.647736 -0.493643 61 245 125
-1.494924 -0.687373 -0.468217 61 245 126
-1.475241 -0.706774 -0.465676 61 245 126
-1.448840 -0.716964 -0.451491 61 245 127
-1.439063 -0.722348 -0.476254 61 245 127
-1.443825 -0.728312 -0.431906 61 245 128
-1.388221 -0.730724 -0.430909 61 245 129
-1.405981 -0.760705 -0.451450 61 245 129
-1.384519 -0.770251 -0.416194 61 245 130
-1.339476 -0.796219 -0.424387 61 245 130
-1.321432 -0.811567 -0.401982 61 245 131
-1.331383 -0.811882 -0.411067 61 245 131
-1.329292 -0.824535 -0.378067 61 245 132
-1.277937 -0.818283 -0.399051 61 245 132
-1.256218 -0.831030 -0.389027 61 245 133
-1.278378 -0.851277 -0.390222 61 245 134
-1.262123 -0.897073 -0.346194 61 245 134
-1.216485 -0.879907 -0.371241 61 245 135
-1.219837 -0.919960 -0.321622 61 245 135
-1.207878 -0.903148 -0.339895 61 245 136
-1.176937 -0.947542 -0.315653 61 245 136
-1.171100 -0.910553 -0.290217 61 245 137
-1.143384 -0.962750 -0.288904 61 245 137
-1.134405 -0.955375 -0.293832 61 245 138
-1.098267 -0.986918 -0.293996 61 245 138
-1.094065 -0.975239 -0.264956 61 245 139
-1.100692 -0.996507 -0.284459 61 245 140
-1.041681 -0.993935 -0.259106 61 245 140
-1.060894 -1.013967 -0.263923 61 245 141
-1.009359 -1.018369 -0.240267 61 245 141
-1.023310 -1.007145 -0.242210 61 245 142
-0.994705 -1.039051 -0.210409 61 245 142
-1.005975 -1.042668 -0.178962 61 245 143
-0.953722 -1.047687 -0.177353 61 245 143
-0.956267 -1.067372 -0.204345 61 245 144
-0.919468 -1.055192 -0.180532 61 245 145
-0.926785 -1.072648 -0.137359 61 245 145
-0.925502 -1.081801 -0.160848 61 245 146
-0.865356 -1.091704 -0.128591 61 245 146
-0.857719 -1.115397 -0.141217 61 245 147
-0.840742 -1.102327 -0.113042 61 245 147
-0.853874 -1.129718 -0.118360 61 245 148
-0.816313 -1.155608 -0.099013 61 245 148
-0.789907 -1.132834 -0.093671 61 245 149
-0.776079 -1.176712 -0.049947 61 245 150
-0.788804 -1.165271 -0.051673 61 245 150
-0.788214 -1.170723 -0.054179 61 245 151
-0.759093 -1.175841 -0.020493 61 245 151
-0.732698 -1.182068 -0.009980 61 245 152
-0.705588 -1.211077 -0.026827 61 245 152
-0.699449 -1.229294 -0.005918 61 245 153
-0.665775 -1.207412 0.021218 61 245 153
-0.655141 -1.251075 0.009904 61 245 154
-0.673826 -1.222919 0.025479 61 245 154
-0.647854 -1.266788 0.063421 61 245 155
-0.610147 -1.270843 0.063052 61 245 156
-0.637612 -1.270654 0.082680 61 245 156
-0.605951 -1.280695 0.099338 61 245 157
-0.594012 -1.255177 0.075562 61 245 157
-0.563472 -1.279361 0.115293 61 245 158
-0.555631 -1.307770 0.092473 61 245 158
-0.536167 -1.330328 0.103520 61 245 159
-0.533755 -1.314827 0.153032 61 245 159
-0.503832 -1.323346 0.126067 61 245 160
-0.469131 -1.314425 0.150135 61 245 161
-0.497766 -1.350633 0.155692 61 245 161
-0.474966 -1.344538 0.198843 61 245 162
-0.425977 -1.335387 0.205961 61 245 162
-0.418092 -1.363758 0.192375 61 245 163
-0.415888 -1.355587 0.218938 61 245 163
-0.382671 -1.408962 0.202388 61 245 164
-0.388737 -1.419412 0.222929 61 245 164
-0.351001 -1.395953 0.256379 61 245 165
-0.321658 -1.391979 0.234657 61 245 165
-0.327134 -1.418153 0.283443 61 245 166
-0.292123 -1.444243 0.257310 61 245 167
-0.299348 -1.454982 0.263781 61 245 167
-0.268063 -1.459636 0.264064 61 245 168
-0.272899 -1.442095 0.322627 61 245 168
-0.248179 -1.465392 0.328855 61 245 169
-0.236679 -1.480939 0.313079 61 245 169
-0.185090 -1.493920 0.346031 61 245 170
-0.204037 -1.501094 0.327603 61 245 170
-0.155863 -1.494890 0.363057 61 245 171
-0.160584 -1.519919 0.331729 61 245 172
-0.154480 -1.498719 0.379705 61 245 172
-0.122261 -1.502005 0.351746 61 245 173
-0.102963 -1.538007 0.363706 61 245 173
-0.074915 -1.556581 0.415238 61 245 174
-0.071456 -1.550540 0.391556 61 245 174
-0.036059 -1.536905 0.385698 61 245 175
-0.042068 -1.591466 0.412076 61 245 175
0.017763 -1.594382 0.433541 61 245 176
0.017713 -1.598904 0.415174 61 245 177
0.049701 -1.604922 0.446370 61 245 177
0.082396 -1.575944 0.455246 61 245 178
0.079128 -1.623681 0.471812 61 245 178
0.104573 -1.626314 0.448534 61 245 179
0.110240 -1.632563 0.479778 61 245 179
0.120617 -1.627233 0.483045 61 245 180
0.171350 -1.631985 0.481556 61 245 180
0.164016 -1.652686 0.470932 61 245 181
0.228806 -1.666407 0.489166 61 245 181
0.251820 -1.665058 0.509069 61 245 182
0.261218 -1.657096 0.520590 61 245 183
0.274105 -1.681133 0.502046 61 245 183
0.276739 -1.690030 0.499020 61 245 184
0.312265 -1.688260 0.546817 61 245 184
0.322980 -1.699081 0.527134 61 245 185
0.372016 -1.683755 0.524996 61 245 185
0.366267 -1.691376 0.527317 61 245 186
0.397448 -1.695759 0.550811 61 245 186
0.438372 -1.718378 0.553776 61 245 187
0.471783 -1.686929 0.531191 61 245 188
0.470762 -1.736729 0.566956 61 245 188
0.494215 -1.732951 0.569359 61 245 189
0.527247 -1.700139 0.560631 61 245 189
0.579218 -1.739316 0.585388 61 245 190
0.575602 -1.704088 0.552397 61 245 190
0.602198 -1.752022 0.592986 61 245 191
0.638016 -1.758255 0.598203 61 245 191
0.644961 -1.750125 0.577482 61 245 192
0.706893 -1.748646 0.584272 61 245 192
0.710842 -1.757119 0.598041 61 245 193
0.718061 -1.722176 0.592202 61 245 194
0.749898 -1.766107 0.594446 61 245 194
0.774159 -1.757868 0.589989 61 245 195
0.812246 -1.758771 0.616724 61 245 195
0.828375 -1.742707 0.576368 61 245 196
0.849233 -1.751201 0.594957 61 245 196
0.904902 -1.716574 0.588472 61 245 197
0.907908 -1.715352 0.617489 61 245 197
0.929714 -1.748493 0.616611 61 245 198
1.005767 -1.746381 0.585634 61 245 199
1.031799 -1.721107 0.621274 61 245 199
1.037574 -1.717472 0.581142 61 245 200
1.076857 -1.742433 0.586213 61 245 200
1.091210 -1.717373 0.586838 61 245 201
1.144464 -1.699840 0.620674 61 245 201
1.128732 -1.694798 0.576367 61 245 202
1.164503 -1.688623 0.610744 61 245 202
1.182506 -1.699704 0.614650 61 245 203
1.215347 -1.669826 0.603834 61 245 203
1.267942 -1.668910 0.605480 61 245 204
1.297878 -1.670278 0.593313 61 245 205
1.298464 -1.652516 0.604831 61 245 205
1.344324 -1.651132 0.596930 61 245 206
1.379952 -1.670927 0.563455 61 245 206
1.409209 -1.663365 0.563978 61 245 207
1.449442 -1.648250 0.558403 61 245 207
1.473129 -1.621156 0.568066 61 245 208
1.470007 -1.612102 0.555219 61 245 208
1.494123 -1.594828 0.569789 61 245 209
1.526510 -1.596758 0.582773 61 245 210
1.569695 -1.578360 0.565259 61 245 210
1.609720 -1.580253 0.527556 61 245 211
1.634056 -1.567126 0.554263 61 245 211
1.662757 -1.536464 0.534522 61 245 212
1.650555 -1.535089 0.539132 61 245 212
1.698875 -1.528385 0.540173 61 245 213
1.705553 -1.499173 0.529334 61 245 213
1.745082 -1.473134 0.529288 61 245 214
1.791655 -1.480584 0.531492 61 245 215
1.804634 -1.450680 0.519621 61 245 215
1.810910 -1.415327 0.524161 61 245 216
1.857346 -1.432489 0.488973 61 245 216
1.860290 -1.407066 0.469360 61 245 217
1.927045 -1.395101 0.494274 61 245 217
1.948218 -1.370493 0.455849 61 245 218
1.951042 -1.352905 0.474119 61 245 218
2.000537 -1.349843 0.443500 61 245 219
2.001329 -1.326527 0.466745 61 245 219
2.040968 -1.303898 0.471120 61 245 220
2.048773 -1.282442 0.447438 61 245 221
2.088237 -1.248349 0.427480 61 245 221
2.110621 -1.211884 0.413803 61 245 222
2.104917 -1.219332 0.397990 61 245 222
2.115926 -1.189347 0.388539 61 245 223
2.177520 -1.171360 0.417649 61 245 223
2.157197 -1.144694 0.381231 61 245 224
2.206262 -1.090267 0.376958 61 245 224
2.198039 -1.069030 0.381757 61 245 225
2.234199 -1.076473 0.391644 61 245 226
2.267133 -1.018847 0.367755 61 245 226
2.301564 -1.021035 0.343253 61 245 227
2.303689 -0.981613 0.319193 61 245 227
2.292050 -0.954726 0.323977 61 245 228
2.331898 -0.942502 0.335230 61 245 228
2.342940 -0.876358 0.322604 61 245 229
2.362242 -0.873591 0.292652 61 245 229
2.385029 -0.849726 0.297599 61 245 230
2.401165 -0.789400 0.283748 61 245 230
2.415133 -0.799125 0.276168 61 245 231
2.434218 -0.747888 0.265043 61 245 232
2.445242 -0.742154 0.249071 61 245 232
2.463771 -0.704795 0.266025 61 245 233
2.472342 -0.642704 0.211715 61 245 233
2.494120 -0.613441 0.206324 61 245 234
2.503457 -0.613261 0.200020 61 245 234
2.475759 -0.570677 0.185856 61 245 235
2.534295 -0.529850 0.179681 61 245 235
2.516771 -0.523284 0.156992 61 245 236
2.510403 -0.472691 0.148443 61 245 237
2.536507 -0.471522 0.157991 61 245 237
2.553107 -0.427043 0.152238 61 245 238
2.576424 -0.394692 0.135630 61 245 238
2.567702 -0.338332 0.140660 61 245 239
2.578129 -0.324449 0.107510 61 245 239
2.585579 -0.297421 0.105476 61 245 240
2.567457 -0.238104 0.076586 61 245 240
2.585682 -0.206940 0.066449 61 245 241
2.582749 -0.217540 0.064765 61 245 241
2.608765 -0.179760 0.031554 61 245 242
2.574293 -0.144509 0.054864 61 245 243
2.579375 -0.076190 0.046571 61 245 243
2.610110 -0.085463 0.042298 61 245 244
2.596015 -0.054756 0.036205 61 245 244
2.596342 0.011556 0.007111 61 245 245
2.590793 0.026064 -0.000346 61 244 245
2.618772 0.062942 -0.020809 61 244 245
2.604889 0.078455 -0.028979 61 243 245
2.599903 0.134693 -0.065456 61 243 245
2.600860 0.153004 -0.055459 61 242 245
2.591144 0.208703 -0.070296 61 241 245
2.604315 0.203218 -0.090003 61 241 245
2.555710 0.277801 -0.073746 61 240 245
2.581099 0.295598 -0.077274 61 240 245
2.551362 0.323873 -0.095326 61 239 245
2.570965 0.379954 -0.115583 61 239 245
2.539820 0.374509 -0.128984 61 238 245
2.561896 0.432948 -0.123001 61 238 245
2.517745 0.475500 -0.175166 61 237 245
2.546269 0.488540 -0.148564 61 237 245
2.501989 0.515822 -0.163299 61 236 245
2.519183 0.544984 -0.196498 61 235 245
2.521248 0.587502 -0.199837 61 235 245
2.504145 0.603777 -0.195264 61 234 245
2.457680 0.633738 -0.212668 61 234 245
2.478208 0.656334 -0.214702 61 233 245
2.473281 0.697177 -0.235531 61 233 245
2.443041 0.748309 -0.234064 61 232 245
2.412565 0.738018 -0.246881 61 232 245
2.385779 0.800673 -0.268051 61 231 245
2.386570 0.832205 -0.284327 61 230 245
2.391813 0.849144 -0.283688 61 230 245
2.376326 0.886397 -0.283324 61 229 245
2.340892 0.884324 -0.297816 61 229 245
2.353998 0.942145 -0.316239 61 228 245
2.324350 0.937907 -0.335414 61 228 245
2.310803 0.980580 -0.330644 61 227 245
2.272486 1.002626 -0.369465 61 227 245
2.236088 1.033139 -0.355663 61 226 245
2.238990 1.063594 -0.365009 61 226 245
2.213120 1.066488 -0.398455 61 225 245
2.218532 1.105097 -0.391401 61 224 245
2.156575 1.139173 -0.375351 61 224 245
2.145433 1.168573 -0.394771 61 223 245
2.124181 1.169146 -0.416586 61 223 245
2.120333 1.190242 -0.437059 61 222 245
2.070710 1.206223 -0.450937 61 222 245
2.087711 1.265773 -0.413920 61 221 245
2.051386 1.267472 -0.425279 61 221 245
2.002827 1.280665 -0.442774 61 220 245
2.000725 1.319297 -0.457766 61 219 245
1.965532 1.349197 -0.460420 61 219 245
1.931484 1.344273 -0.487227 61 218 245
1.935606 1.365779 -0.480409 61 218 245
1.894010 1.366852 -0.504276 61 217 245
1.882584 1.407963 -0.468721 61 217 245
1.858461 1.398275 -0.477796 61 216 245
1.809220 1.448533 -0.482399 61 216 245
1.815793 1.452868 -0.516968 61 215 245
1.755617 1.444667 -0.522605 61 215 245
1.742369 1.466959 -0.505094 61 214 245
1.703775 1.517484 -0.512358 61 213 245
1.716683 1.520381 -0.525993 61 213 245
1.659282 1.548377 -0.544635 61 212 245
1.641223 1.524194 -0.546341 61 212 245
1.626493 1.575612 -0.552843 61 211 245
1.610676 1.548325 -0.557739 61 211 245
1.575205 1.598386 -0.565189 61 210 245
1.555968 1.583794 -0.569050 61 210 245
1.518489 1.607812 -0.573598 61 209 245
1.494332 1.605703 -0.566674 61 208 245
1.439200 1.644019 -0.563936 61 208 245
1.403180 1.646625 -0.575126 61 207 245
1.385739 1.623570 -0.555890 61 207 245
1.351972 1.679700 -0.597691 61 206 245
1.321555 1.670273 -0.600510 61 206 245
1.335817 1.697258 -0.606456 61 205 245
1.301509 1.668707 -0.611840 61 205 245
1.280980 1.703056 -0.566476 61 204 245
1.213556 1.671395 -0.576498 61 203 245
1.201255 1.713747 -0.595198 61 203 245
1.183627 1.725999 -0.595300 61 202 245
1.134888 1.725796 -0.614003 61 202 245
1.121845 1.734679 -0.580659 61 201 245
1.072859 1.742323 -0.600319 61 201 245
1.070697 1.723744 -0.608635 61 200 245
1.060814 1.705534 -0.614933 61 200 245
0.995978 1.754103 -0.588800 61 199 245
0.964386 1.747960 -0.591837 61 199 245
0.943851 1.725862 -0.595202 61 198 245
0.937540 1.732122 -0.613542 61 197 245
0.889956 1.741028 -0.599114 61 197 245
0.884064 1.752302 -0.607972 61 196 245
0.827708 1.763954 -0.608781 61 196 245
0.842963 1.758061 -0.608308 61 195 245
0.804404 1.725370 -0.582107 61 195 245
0.751784 1.757108 -0.571583 61 194 245
0.720421 1.740055 -0.576801 61 194 245
0.701209 1.717200 -0.588225 61 193 245
0.671140 1.741715 -0.576220 61 192 245
0.686786 1.711079 -0.570356 61 192 245
0.655890 1.752635 -0.564526 61 191 245
0.619982 1.707497 -0.599300 61 191 245
0.584461 1.753417 -0.577376 61 190 245
0.555894 1.719331 -0.573097 61 190 245
0.512352 1.728616 -0.569909 61 189 245
0.509827 1.713106 -0.569333 61 189 245
0.470225 1.703058 -0.566685 61 188 245
0.474364 1.733270 -0.547168 61 188 245
0.423526 1.705878 -0.568066 61 187 245
0.430795 1.690038 -0.567805 61 186 245
0.398160 1.697882 -0.528869 61 186 245
0.361204 1.714627 -0.533195 61 185 245
0.364683 1.683769 -0.545893 61 185 245
0.306642 1.683480 -0.542683 61 184 245
0.285784 1.686353 -0.503729 61 184 245
0.267595 1.665264 -0.500896 61 183 245
0.249963 1.653211 -0.493515 61 183 245
0.247358 1.679866 -0.481216 61 182 245
0.194367 1.634320 -0.508071 61 181 245
0.176908 1.645437 -0.466479 61 181 245
0.163578 1.617066 -0.474742 61 180 245
0.142112 1.605280 -0.477346 61 180 245
0.138149 1.643088 -0.476958 61 179 245
0.109529 1.627645 -0.454083 61 179 245
0.087587 1.606273 -0.446587 61 178 245
0.064051 1.587907 -0.428747 61 178 245
0.027173 1.599806 -0.441942 61 177 245
0.003275 1.567624 -0.452532 61 177 245
-0.002901 1.586594 -0.431262 61 176 245
-0.023143 1.560169 -0.419406 61 175 245
-0.040554 1.581491 -0.413762 61 175 245
-0.065171 1.535274 -0.394033 61 174 245
-0.056748 1.549364 -0.378756 61 174 245
-0.084944 1.516711 -0.392098 61 173 245
-0.095921 1.527292 -0.351830 61 173 245
-0.155984 1.500395 -0.344982 61 172 245
-0.134212 1.484487 -0.372564 61 172 245
-0.175538 1.493539 -0.354005 61 171 245
-0.182589 1.514471 -0.328991 61 170 245
-0.210129 1.458318 -0.325193 61 170 245
-0.220377 1.499428 -0.317535 61 169 245
-0.242937 1.453210 -0.326184 61 169 245
-0.254916 1.440646 -0.317763 61 168 245
-0.291029 1.428104 -0.293112 61 168 245
-0.278952 1.416036 -0.286249 61 167 245
-0.328124 1.416284 -0.265608 61 167 245
-0.343473 1.440906 -0.283855 61 166 245
-0.362441 1.389805 -0.244264 61 165 245
-0.361360 1.390975 -0.222419 61 165 245
-0.364591 1.377180 -0.234889 61 164 245
-0.415337 1.362999 -0.195430 61 164 245
-0.398740 1.356280 -0.231653 61 163 245
-0.402186 1.388598 -0.187585 61 163 245
-0.417291 1.364887 -0.192093 61 162 245
-0.434905 1.364383 -0.188897 61 162 245
-0.494252 1.355623 -0.184880 61 161 245
-0.507031 1.353493 -0.135696 61 161 245
-0.506054 1.322293 -0.132959 61 160 245
-0.534787 1.318753 -0.106796 61 159 245
-0.527771 1.301327 -0.132850 61 159 245
-0.567823 1.292378 -0.131219 61 158 245
-0.552046 1.304989 -0.115536 61 158 245
-0.578406 1.279607 -0.088927 61 157 245
-0.622947 1.250072 -0.058624 61 157 245
-0.638248 1.270294 -0.084434 61 156 245
-0.604493 1.274722 -0.057949 61 156 245
-0.663639 1.237823 -0.064138 61 155 245
-0.660023 1.241631 -0.008491 61 154 245
-0.682611 1.240034 -0.008881 61 154 245
-0.697792 1.219900 0.012153 61 153 245
-0.693775 1.216715 -0.019333 61 153 245
-0.707389 1.179743 0.009400 61 152 245
-0.739447 1.197498 0.025502 61 152 245
-0.746040 1.199527 0.052594 61 151 245
-0.781783 1.168343 0.054954 61 151 245
-0.765041 1.146513 0.038571 61 150 245
-0.778119 1.136509 0.057040 61 150 245
-0.822806 1.145623 0.090564 61 149 245
-0.811054 1.139770 0.097992 61 148 245
-0.855682 1.145909 0.089732 61 148 245
-0.853381 1.141989 0.102714 61 147 245
-0.866599 1.127488 0.132070 61 147 245
-0.870921 1.105613 0.130439 61 146 245
-0.902273 1.094958 0.132987 61 146 245
-0.896371 1.083998 0.150866 61 145 245
-0.929863 1.053215 0.172034 61 145 245
-0.959508 1.072371 0.160288 61 144 245
-0.950688 1.073921 0.196213 61 143 245
-0.989122 1.056643 0.178821 61 143 245
-1.012516 1.029938 0.226242 61 142 245
-1.009732 1.019604 0.229097 61 142 245
-1.007352 1.021102 0.210650 61 141 245
-1.059754 1.014552 0.246180 61 141 245
-1.084485 0.982418 0.274421 61 140 245
-1.083046 0.968027 0.283879 61 140 245
-1.107681 1.002104 0.273862 61 139 245
-1.087873 0.942532 0.262179 61 138 245
-1.146794 0.960173 0.283676 61 138 245
-1.142972 0.932056 0.296303 61 137 245
-1.173375 0.934021 0.320222 61 137 245
-1.157766 0.923932 0.325265 61 136 245
-1.216666 0.923427 0.323286 61 136 245
-1.198336 0.907392 0.340441 61 135 245
-1.214681 0.905655 0.356606 61 135 245
-1.266589 0.892597 0.339235 61 134 245
-1.263510 0.852378 0.355591 61 134 245
-1.264544 0.850863 0.365898 61 133 245
-1.307963 0.837889 0.395081 61 132 245
-1.299707 0.808890 0.416443 61 132 245
-1.348533 0.795069 0.388255 61 131 245
-1.322290 0.808799 0.422187 61 131 245
-1.372440 0.806178 0.422003 61 130 245
-1.374867 0.792485 0.406476 61 130 245
-1.394480 0.765514 0.419120 61 129 245
-1.412079 0.741193 0.437462 61 129 245
-1.438453 0.721123 0.449292 61 128 245
-1.467412 0.717823 0.479792 61 127 245
-1.473662 0.686107 0.466410 61 127 245
-1.480906 0.686872 0.474824 61 126 245
-1.513539 0.665355 0.498458 61 126 245
-1.520366 0.644588 0.490095 61 125 245
-1.517304 0.669427 0.500495 61 125 245
-1.562096 0.658190 0.499151 61 124 245
-1.536975 0.599000 0.515208 61 124 245
-1.584490 0.590951 0.506182 61 123 245
-1.595505 0.568396 0.518991 61 123 245
-1.597195 0.583351 0.533604 61 122 245
-1.642419 0.554393 0.551840 61 121 245
-1.659699 0.510743 0.549854 61 121 245
-1.677789 0.503316 0.523369 61 120 245
-1.660637 0.473243 0.523149 61 120 245
-1.707287 0.472817 0.562221 61 119 245
-1.695563 0.476915 0.564179 61 119 245
-1.731916 0.457700 0.536585 61 118 245
-1.739928 0.416513 0.551728 61 118 245
-1.738838 0.378838 0.565175 61 117 245
-1.770027 0.365223 0.571357 61 116 245
-1.771701 0.372887 0.595975 61 116 245
-1.815406 0.323132 0.579535 61 115 245
-1.802238 0.327900 0.569420 61 115 245
-1.814971 0.288768 0.561355 61 114 245
-1.840473 0.293838 0.568355 61 114 245
-1.876049 0.271047 0.589039 61 113 245
-1.886315 0.259338 0.606475 61 113 245
-1.895110 0.221557 0.584158 61 112 245
-1.905625 0.206802 0.593323 61 112 245
-1.909722 0.192458 0.609963 61 111 245
-1.942728 0.124193 0.582027 61 110 245
-1.954985 0.115950 0.610123 61 110 245
-1.937400 0.109935 0.574010 61 109 245
-1.947663 0.067654 0.607551 61 109 245
-1.965656 0.063359 0.613898 61 108 245
-1.971249 0.005959 0.621129 61 108 245
-2.021655 0.024939 0.591129 61 107 245
-2.010375 -0.029420 0.605849 61 107 245
-2.007545 -0.061732 0.589101 61 106 245
-2.037569 -0.071024 0.619599 61 105 245
-2.035106 -0.099263 0.598927 61 105 245
-2.050389 -0.141691 0.586211 61 104 245
-2.060950 -0.131744 0.590331 61 104 245
-2.065137 -0.169922 0.576348 61 103 245
-2.103461 -0.215202 0.600349 61 103 245
-2.088009 -0.245148 0.589988 61 102 245
-2.110209 -0.285194 0.598354 61 102 245
-2.110853 -0.317250 0.582492 61 101 245
-2.127903 -0.326621 0.569089 61 100 245
-2.097398 -0.349227 0.599341 61 100 245
-2.120907 -0.397237 0.554537 61 99 245
-2.138333 -0.384044 0.567836 61 99 245
-2.129901 -0.424835 0.589083 61 98 245
-2.141974 -0.468536 0.576304 61 98 245
-2.143207 -0.493779 0.571225 61 97 245
-2.140298 -0.501632 0.541868 61 97 245
-2.176099 -0.528938 0.557805 61 96 245
-2.168044 -0.567353 0.575733 61 96 245
-2.145843 -0.603034 0.551086 61 95 245
-2.153005 -0.654820 0.529431 61 94 245
-2.165910 -0.679363 0.530402 61 94 245
-2.152751 -0.682762 0.557486 61 93 245
-2.141676 -0.741816 0.547503 61 93 245
-2.139385 -0.753972 0.536476 61 92 245
-2.184394 -0.780879 0.536108 61 92 245
-2.141492 -0.841571 0.504242 61 91 245
-2.167532 -0.834658 0.510515 61 91 245
-2.162234 -0.863495 0.496763 61 90 245
-2.129265 -0.935527 0.498141 61 89 245
-2.170917 -0.947723 0.469079 61 89 245
-2.153937 -0.979347 0.472246 61 88 245
-2.120538 -0.992784 0.470606 61 88 245
-2.160655 -1.054126 0.491192 61 87 245
-2.116695 -1.071625 0.448234 61 87 245
-2.145307 -1.088856 0.446772 61 86 245
-2.116933 -1.116204 0.436943 61 86 245
-2.106587 -1.165374 0.454886 61 85 245
-2.081974 -1.202175 0.427353 61 85 245
-2.074560 -1.226688 0.416435 61 84 245
-2.069828 -1.264511 0.394794 61 83 245
-2.057474 -1.271256 0.426265 61 83 245
-2.093233 -1.290274 0.415450 61 82 245
-2.071201 -1.348678 0.369609 61 82 245
-2.030350 -1.356536 0.377900 61 81 245
-2.047393 -1.388977 0.353983 61 81 245
-2.022925 -1.455223 0.359757 61 80 245
-2.005800 -1.461580 0.356305 61 80 245
-2.019533 -1.498648 0.319146 61 79 245
-1.994409 -1.517233 0.316237 61 78 245
-1.976031 -1.535636 0.319534 61 78 245
-1.952674 -1.598795 0.338000 61 77 245
-1.944923 -1.610928 0.317044 61 77 245
-1.904363 -1.638703 0.320632 61 76 245
-1.924586 -1.670667 0.280513 61 76 245
-1.909872 -1.674226 0.278183 61 75 245
-1.875183 -1.717386 0.261235 61 75 245
-1.877823 -1.721510 0.278645 61 74 245
-1.831794 -1.746213 0.222067 61 74 245
-1.830955 -1.796324 0.248013 61 73 245
-1.804973 -1.809663 0.243748 61 72 245
-1.762216 -1.835460 0.219126 61 72 245
-1.740553 -1.871307 0.188580 61 71 245
-1.728892 -1.884040 0.198647 61 71 245
-1.724304 -1.928922 0.192727 61 70 245
-1.682796 -1.955810 0.179460 61 70 245
-1.663262 -1.974192 0.135709 61 69 245
-1.636468 -2.010437 0.124557 61 69 245
-1.604210 -2.029973 0.145256 61 68 245
-1.620301 -2.017900 0.119593 61 67 245
-1.552773 -2.040508 0.134623 61 67 245
-1.541772 -2.073337 0.113501 61 66 245
-1.511397 -2.115284 0.086695 61 66 245
-1.498949 -2.128501 0.065135 61 65 245
-1.483560 -2.117782 0.057268 61 65 245
-1.446597 -2.161477 0.063487 61 64 245
-1.426570 -2.168428 0.030588 61 64 245
-1.370497 -2.208370 0.028731 61 63 245
-1.349675 -2.230375 0.011886 61 62 245
-1.325821 -2.227331 0.008236 61 62 245
-1.302598 -2.245664 0.012060 61 61 245
-1.297938 -2.255491 -0.021532 62 61 245
-1.269054 -2.298699 -0.032748 62 61 245
-1.207774 -2.291697 -0.050403 63 61 245
-1.197256 -2.323586 -0.045952 63 61 245
-1.158356 -2.306104 -0.067506 64 61 245
-1.158256 -2.328880 -0.054475 64 61 245
-1.110859 -2.363013 -0.087972 65 61 245
-1.081313 -2.357435 -0.071568 65 61 245
-1.060398 -2.383944 -0.082732 66 61 245
-1.016890 -2.365802 -0.099777 67 61 245
-0.983676 -2.387035 -0.103611 67 61 245
-0.951809 -2.427057 -0.125364 68 61 245
-0.916692 -2.392710 -0.133974 68 61 245
-0.909757 -2.421985 -0.161834 69 61 245
-0.843960 -2.431271 -0.165245 69 61 245
-0.838023 -2.434145 -0.152118 70 61 245
-0.776413 -2.425373 -0.181920 70 61 245
-0.760272 -2.445969 -0.189660 71 61 245
-0.753199 -2.432359 -0.226624 71 61 245
-0.717650 -2.485609 -0.202168 72 61 245
-0.667250 -2.470629 -0.249910 73 61 245
-0.610758 -2.449890 -0.220143 73 61 245
-0.591418 -2.479224 -0.259566 74 61 245
-0.587578 -2.487058 -0.258025 74 61 245
-0.554173 -2.502712 -0.246898 75 61 245
-0.500784 -2.480009 -0.266793 75 61 245
-0.476876 -2.473084 -0.286428 76 61 245
-0.420027 -2.476695 -0.288056 76 61 245
-0.412600 -2.498163 -0.295348 77 61 245
-0.370645 -2.486242 -0.335053 78 61 245
-0.328191 -2.499023 -0.305142 78 61 245
-0.322274 -2.466583 -0.335459 79 61 245
-0.279364 -2.468626 -0.345457 79 61 245
-0.267271 -2.456896 -0.354572 80 61 245
-0.218667 -2.484953 -0.375021 80 61 245
-0.195109 -2.480878 -0.361424 81 61 245
-0.139738 -2.445753 -0.373328 81 61 245
-0.117972 -2.475655 -0.404116 82 61 245
-0.072649 -2.440923 -0.375034 82 61 245
-0.073057 -2.436644 -0.400486 83 61 245
-0.011795 -2.450483 -0.419790 84 61 245
0.001083 -2.414845 -0.443336 84 61 245
0.006869 -2.401857 -0.439583 85 61 245
0.040089 -2.428043 -0.464036 85 61 245
0.086672 -2.376046 -0.445528 86 61 245
0.133899 -2.388700 -0.461984 86 61 245
0.130296 -2.362115 -0.451306 87 61 245
0.188955 -2.378083 -0.451894 87 61 245
0.211268 -2.332437 -0.488562 88 61 245
0.247465 -2.348656 -0.475716 89 61 245
0.246116 -2.321492 -0.469857 89 61 245
0.295597 -2.320767 -0.510158 90 61 245
0.333307 -2.294229 -0.516002 90 61 245
0.330252 -2.312681 -0.520925 91 61 245
0.366604 -2.296719 -0.519264 91 61 245
0.407360 -2.287727 -0.512843 92 61 245
0.435812 -2.244387 -0.550654 92 61 245
0.463226 -2.234022 -0.537117 93 61 245
0.480780 -2.204972 -0.542133 94 61 245
0.502299 -2.208421 -0.539304 94 61 245
0.553918 -2.165092 -0.548505 95 61 245
0.566298 -2.148152 -0.540436 95 61 245
0.598557 -2.154963 -0.561610 96 61 245
0.581544 -2.115961 -0.538040 96 61 245
0.606042 -2.116525 -0.570683 97 61 245
0.673907 -2.086668 -0.553513 97 61 245
0.663012 -2.071160 -0.592661 98 61 245
0.703849 -2.082485 -0.559823 98 61 245
0.738083 -2.061619 -0.553339 99 61 245
0.728140 -2.005788 -0.579230 100 61 245
0.780802 -1.985979 -0.600612 100 61 245
0.801448 -1.988767 -0.595360 101 61 245
0.809337 -1.959952 -0.577507 101 61 245
0.802398 -1.932485 -0.577707 102 61 245
0.834608 -1.924432 -0.568628 102 61 245
0.854628 -1.919215 -0.592581 103 61 245
0.880483 -1.883069 -0.608843 103 61 245
0.922151 -1.855355 -0.613149 104 61 245
0.945395 -1.856258 -0.614871 105 61 245
0.930394 -1.807820 -0.623357 105 61 245
0.967384 -1.800026 -0.592508 106 61 245
0.960836 -1.755293 -0.618020 106 61 245
0.987619 -1.726284 -0.579953 107 61 245
0.999733 -1.748588 -0.621284 107 61 245
0.996431 -1.709112 -0.575357 108 61 245
1.036491 -1.665466 -0.594201 108 61 245
1.073416 -1.642682 -0.597261 109 61 245
1.041651 -1.618858 -0.591386 109 61 245
1.060142 -1.610998 -0.576907 110 61 245
1.102525 -1.584177 -0.574224 111 61 245
1.111908 -1.543559 -0.573520 111 61 245
1.106221 -1.544153 -0.588210 112 61 245
1.130692 -1.510265 -0.608147 112 61 245
1.131426 -1.504048 -0.588567 113 61 245
1.151850 -1.452006 -0.575160 113 61 245
1.183852 -1.469729 -0.598938 114 61 245
1.168779 -1.415469 -0.596982 114 61 245
1.184820 -1.426997 -0.555300 115 61 245
1.178286 -1.384023 -0.568801 116 61 245
1.186656 -1.381086 -0.580172 116 61 245
1.239327 -1.317464 -0.585749 117 61 245
1.226673 -1.321218 -0.548786 117 61 245
1.262349 -1.290289 -0.564576 118 61 245
1.223292 -1.242149 -0.533820 118 61 245
1.267773 -1.264251 -0.554946 119 61 245
1.257238 -1.226452 -0.550543 119 61 245
1.270346 -1.205691 -0.533442 120 61 245
1.295865 -1.195102 -0.523287 121 61 245
1.311027 -1.166272 -0.529378 121 61 245
1.295691 -1.130687 -0.526409 122 61 245
1.303752 -1.102274 -0.535195 122 61 245
1.297595 -1.086449 -0.534482 123 61 245
1.293048 -1.058342 -0.493832 123 61 245
1.329592 -1.045301 -0.480640 124 61 245
1.346466 -1.020593 -0.522471 124 61 245
1.310018 -1.004649 -0.512845 125 61 245
1.349906 -0.975768 -0.486703 125 61 245
1.360076 -0.930002 -0.486961 126 61 245
1.324667 -0.932228 -0.456235 127 61 245
1.365026 -0.878489 -0.445610 127 61 245
1.329322 -0.882139 -0.441262 128 61 245
1.344807 -0.844755 -0.447562 128 61 245
1.370823 -0.819735 -0.444303 129 61 245
1.364196 -0.815658 -0.411916 129 61 245
1.341615 -0.773539 -0.451396 130 61 245
1.352522 -0.776659 -0.412259 130 61 245
1.387612 -0.776482 -0.387233 131 61 245
1.391440 -0.736245 -0.419169 132 61 245
1.368513 -0.695256 -0.410359 132 61 245
1.393225 -0.709360 -0.406847 133 61 245
1.356841 -0.655423 -0.361777 133 61 245
1.375553 -0.657557 -0.349877 134 61 245
1.378820 -0.615147 -0.337897 134 61 245
1.374456 -0.616786 -0.362621 135 61 245
1.373410 -0.599778 -0.348321 135 61 245
1.375193 -0.589402 -0.307444 136 61 245
1.404354 -0.557024 -0.316931 136 61 245
1.408308 -0.536686 -0.312563 137 61 245
1.406089 -0.492546 -0.311936 138 61 245
1.379621 -0.493567 -0.295829 138 61 245
1.405258 -0.477398 -0.259024 139 61 245
1.395352 -0.447686 -0.274885 139 61 245
1.385771 -0.441601 -0.270998 140 61 245
1.378369 -0.419955 -0.258461 140 61 245
1.375555 -0.371728 -0.232413 141 61 245
1.400705 -0.355424 -0.249471 141 61 245
1.397767 -0.366666 -0.204926 142 61 245
1.389901 -0.333310 -0.186872 143 61 245
1.386039 -0.301401 -0.209027 143 61 245
1.403829 -0.314349 -0.168780 144 61 245
1.401408 -0.295816 -0.181838 144 61 245
1.377125 -0.267312 -0.179754 145 61 245
1.407146 -0.226509 -0.132808 145 61 245
1.408369 -0.231055 -0.161744 146 61 245
1.396373 -0.209242 -0.139322 146 61 245
1.403000 -0.218934 -0.099056 147 61 245
1.395077 -0.154925 -0.130860 147 61 245
1.421110 -0.169336 -0.093598 148 61 245
1.424474 -0.161623 -0.099102 149 61 245
1.423052 -0.117591 -0.076077 149 61 245
1.396225 -0.110088 -0.054834 150 61 245
1.424361 -0.092511 -0.047165 150 61 245
1.381716 -0.065348 -0.048752 151 61 245
1.418973 -0.051980 -0.014926 151 61 245
1.378783 -0.056159 -0.029406 152 61 245
1.408774 -0.000363 -0.018003 152 61 245
1.394598 0.019384 -0.012772 153 61 245
1.393166 0.022055 0.030267 154 61 245
1.400439 0.021895 0.016898 154 61 245
1.401222 0.049557 0.051502 155 61 245
1.399632 0.084849 0.059139 155 61 245
1.411772 0.077329 0.060532 156 61 245
1.399402 0.108287 0.091017 156 61 245
1.399083 0.140730 0.057806 157 61 245
1.389366 0.163438 0.068145 157 61 245
1.397410 0.135808 0.124524 158 61 245
1.422431 0.196131 0.131436 159 61 245
1.390778 0.170878 0.115788 159 61 245
1.394877 0.219182 0.119952 160 61 245
1.396024 0.215732 0.139372 160 61 245
1.384759 0.268593 0.161849 161 61 245
1.397173 0.268404 0.154933 161 61 245
1.406634 0.297115 0.167801 162 61 245
1.383327 0.282562 0.186890 162 61 245
1.374599 0.331199 0.219085 163 61 245
1.400528 0.332915 0.231948 163 61 245
1.407483 0.347346 0.207510 164 61 245
1.418504 0.388384 0.244747 165 61 245
1.396120 0.414976 0.265318 165 61 245
1.380248 0.405334 0.258067 166 61 245
1.405619 0.438107 0.268807 166 61 245
1.401828 0.449818 0.255865 167 61 245
1.370429 0.469569 0.302996 167 61 245
1.401245 0.470059 0.314558 168 61 245
1.389908 0.489365 0.295315 168 61 245
1.397098 0.549980 0.312126 169 61 245
1.407867 0.526730 0.338625 170 61 245
1.368630 0.571754 0.318481 170 61 245
1.362575 0.607577 0.338070 171 61 245
1.398622 0.617923 0.342923 171 61 245
1.371777 0.637243 0.336162 172 61 245
1.398650 0.634722 0.370907 172 61 245
1.376998 0.664566 0.362084 173 61 245
1.353914 0.707512 0.400561 173 61 245
1.371107 0.690619 0.372439 174 61 245
1.362236 0.740202 0.407088 174 61 245
1.384243 0.739814 0.433358 175 61 245
1.382346 0.782708 0.400226 176 61 245
1.344166 0.785418 0.413203 176 61 245
1.362768 0.801056 0.453960 177 61 245
1.337890 0.823471 0.455355 177 61 245
1.346514 0.859656 0.429445 178 61 245
1.337472 0.885322 0.450174 178 61 245
1.362953 0.897212 0.471719 179 61 245
1.327829 0.925477 0.493681 179 61 245
1.313369 0.961122 0.462801 180 61 245
1.333163 0.965508 0.504746 181 61 245
1.317449 0.975161 0.501116 181 61 245
1.323201 0.992913 0.512330 182 61 245
1.303563 1.021662 0.484512 182 61 245
1.298029 1.077769 0.511215 183 61 245
1.325827 1.061689 0.493340 183 61 245
1.277798 1.093723 0.534946 184 61 245
1.292827 1.118468 0.514247 184 61 245
1.261567 1.134889 0.537018 185 61 245
1.295788 1.148873 0.539829 185 61 245
1.253170 1.212402 0.534928 186 61 245
1.282666 1.194276 0.540666 187 61 245
1.240179 1.226574 0.541761 187 61 245
1.239514 1.287703 0.552888 188 61 245
1.214844 1.295230 0.548185 188 61 245
1.241457 1.301629 0.584231 189 61 245
1.239343 1.352820 0.562503 189 61 245
1.216604 1.340681 0.559097 190 61 245
1.217495 1.397130 0.551634 190 61 245
1.205843 1.392735 0.585725 191 61 245
1.175244 1.446943 0.604721 192 61 245
1.179158 1.442867 0.569104 192 61 245
1.140526 1.448983 0.575936 193 61 245
1.163144 1.515130 0.583397 193 61 245
1.144389 1.536551 0.609848 194 61 245
1.129494 1.528668 0.573291 194 61 245
1.083203 1.561075 0.586857 195 61 245
1.070794 1.599238 0.600481 195 61 245
1.083499 1.619747 0.584356 196 61 245
1.087061 1.636993 0.582459 197 61 245
1.042304 1.636833 0.578471 197 61 245
1.048526 1.659446 0.579028 198 61 245
1.011488 1.713975 0.578243 198 61 245
1.027555 1.734977 0.600519 199 61 245
0.991624 1.747512 0.606878 199 61 245
0.976734 1.750071 0.589353 200 61 245
0.976553 1.787275 0.589211 200 61 245
0.956536 1.810706 0.576547 201 61 245
0.914879 1.813230 0.600256 201 61 245
0.900766 1.866252 0.611545 202 61 245
0.895277 1.869067 0.590866 203 61 245
0.849955 1.890771 0.570105 203 61 245
0.841431 1.936770 0.584390 204 61 245
0.823329 1.921726 0.601692 204 61 245
0.825251 1.945757 0.609328 205 61 245
0.783340 1.999826 0.593141 205 61 245
0.779922 2.009229 0.589564 206 61 245
0.765243 2.043956 0.594216 206 61 245
0.723694 2.051028 0.592834 207 61 245
0.700292 2.068754 0.579156 208 61 245
0.678747 2.099054 0.590999 208 61 245
0.639353 2.116967 0.547279 209 61 245
0.624068 2.126233 0.559890 209 61 245
0.603543 2.156146 0.534927 210 61 245
0.565539 2.135100 0.532224 210 61 245
0.560548 2.163547 0.546496 211 61 245
0.537946 2.205352 0.539142 211 61 245
0.482564 2.189544 0.531013 212 61 245
0.500758 2.206178 0.543493 212 61 245
0.438844 2.208272 0.536100 213 61 245
0.413471 2.265828 0.515249 214 61 245
0.420469 2.245307 0.506624 214 61 245
0.373925 2.257621 0.526349 215 61 245
0.325803 2.298246 0.532909 215 61 245
0.336670 2.323942 0.520293 216 61 245
0.269727 2.336730 0.484981 216 61 245
0.278508 2.315759 0.499626 217 61 245
0.231115 2.347746 0.467991 217 61 245
0.191348 2.333653 0.468243 218 61 245
0.166311 2.355544 0.455158 219 61 245
0.155876 2.371685 0.467111 219 61 245
0.135468 2.408691 0.449807 220 61 245
0.079333 2.381009 0.463570 220 61 245
0.075071 2.412246 0.431356 221 61 245
0.006501 2.408609 0.416239 221 61 245
-0.006841 2.444160 0.421517 222 61 245
-0.037567 2.420631 0.411208 222 61 245
-0.047387 2.443252 0.431315 223 61 245
-0.069206 2.470586 0.377739 224 61 245
-0.135600 2.455975 0.381520 224 61 245
-0.167233 2.446133 0.361428 225 61 245
-0.165997 2.453771 0.375061 225 61 245
-0.198067 2.485582 0.355926 226 61 245
-0.240719 2.450185 0.375141 226 61 245
-0.288200 2.498411 0.334504 227 61 245
-0.312383 2.456022 0.351765 227 61 245
-0.349936 2.467786 0.324093 228 61 245
-0.360404 2.461503 0.334914 228 61 245
-0.424344 2.474138 0.311454 229 61 245
-0.461056 2.475700 0.319768 230 61 245
-0.466736 2.487934 0.292615 230 61 245
-0.521685 2.481028 0.264864 231 61 245
-0.531995 2.500566 0.282275 231 61 245
-0.579206 2.489708 0.257030 232 61 245
-0.610126 2.493879 0.226804 232 61 245
-0.618108 2.478843 0.237498 233 61 245
-0.648918 2.449737 0.251385 233 61 245
-0.720836 2.444513 0.229210 234 61 245
-0.706649 2.474440 0.204727 235 61 245
-0.749152 2.427941 0.210426 235 61 245
-0.785836 2.456546 0.207805 236 61 245
-0.819343 2.427518 0.188807 236 61 245
-0.851750 2.451665 0.179115 237 61 245
-0.874304 2.439189 0.171622 237 61 245
-0.910921 2.396041 0.127263 238 61 245
-0.931459 2.427514 0.129858 238 61 245
-1.005061 2.418709 0.104301 239 61 245
-0.999797 2.369057 0.087606 239 61 245
-1.025063 2.384514 0.103555 240 61 245
-1.075533 2.376384 0.101535 241 61 245
-1.119770 2.329650 0.089438 241 61 245
-1.121789 2.310567 0.054047 242 61 245
-1.176479 2.345708 0.075832 242 61 245
-1.197344 2.322002 0.048764 243 61 245
-1.208151 2.296178 0.040847 243 61 245
-1.247058 2.282761 0.018983 244 61 245
-1.302514 2.282159 0.025005 244 61 245
-1.317225 2.222609 0.015248 245 61 245
-1.318573 2.219527 -0.025875 245 61 244
-1.362022 2.204467 -0.004845 245 61 244
-1.391512 2.172950 -0.061062 245 61 243
-1.439878 2.199243 -0.037508 245 61 242
-1.443812 2.177100 -0.082706 245 61 242
-1.485680 2.145094 -0.073523 245 61 241
-1.474504 2.120282 -0.102749 245 61 241
-1.524634 2.084310 -0.080662 245 61 240
-1.559990 2.079726 -0.103484 245 61 240
-1.558602 2.040144 -0.097539 245 61 239
-1.573010 2.052830 -0.111517 245 61 239
-1.627414 1.991643 -0.134446 245 61 238
-1.662295 1.964420 -0.153951 245 61 237
-1.691375 1.951066 -0.182474 245 61 237
-1.699837 1.964852 -0.150052 245 61 236
-1.700721 1.940883 -0.173744 245 61 236
-1.714810 1.870669 -0.183924 245 61 235
-1.762561 1.865479 -0.225339 245 61 235
-1.796231 1.827815 -0.224348 245 61 234
-1.791792 1.842497 -0.205862 245 61 234
-1.797567 1.798419 -0.247177 245 61 233
-1.841256 1.784972 -0.268977 245 61 232
-1.863392 1.740032 -0.248095 245 61 232
-1.851761 1.694319 -0.278652 245 61 231
-1.899712 1.686858 -0.288584 245 61 231
-1.916105 1.636903 -0.287514 245 61 230
-1.933475 1.654672 -0.290270 245 61 230
-1.952172 1.588853 -0.287311 245 61 229
-1.949881 1.569869 -0.305914 245 61 229
-1.968461 1.534485 -0.314406 245 61 228
-1.995186 1.497791 -0.326713 245 61 228
-2.011076 1.473785 -0.331033 245 61 227
-2.027162 1.459572 -0.347099 245 61 226
-2.040300 1.419034 -0.346917 245 61 226
-2.018605 1.391678 -0.350139 245 61 225
-2.030381 1.354161 -0.384164 245 61 225
-2.074406 1.341414 -0.390454 245 61 224
-2.075492 1.331423 -0.379822 245 61 224
-2.062163 1.298688 -0.403064 245 61 223
-2.090058 1.261992 -0.400903 245 61 223
-2.110203 1.238664 -0.423299 245 61 222
-2.127758 1.183180 -0.425456 245 61 221
-2.108653 1.176080 -0.441283 245 61 221
-2.113461 1.110909 -0.454238 245 61 220
-2.135394 1.076572 -0.434358 245 61 220
-2.107745 1.050034 -0.459436 245 61 219
-2.130078 1.042858 -0.477457 245 61 219
-2.154477 1.001970 -0.454540 245 61 218
-2.153944 0.961291 -0.481716 245 61 218
-2.137649 0.952018 -0.500282 245 61 217
-2.165566 0.929272 -0.505621 245 61 217
-2.154983 0.866833 -0.513744 245 61 216
-2.141012 0.863555 -0.527559 245 61 215
-2.156010 0.816454 -0.526242 245 61 215
-2.137401 0.811135 -0.513966 245 61 214
-2.172457 0.765593 -0.543602 245 61 214
-2.182639 0.732137 -0.527724 245 61 213
-2.181352 0.722625 -0.547504 245 61 213
-2.179560 0.654198 -0.559038 245 61 212
-2.178134 0.658148 -0.547306 245 61 212
-2.161836 0.624443 -0.530840 245 61 211
-2.178219 0.591361 -0.553737 245 61 210
-2.142467 0.548336 -0.534169 245 61 210
-2.159847 0.515303 -0.560527 245 61 209
-2.152495 0.484475 -0.562502 245 61 209
-2.159393 0.466991 -0.568235 245 61 208
-2.116426 0.455185 -0.595003 245 61 208
-2.147830 0.403186 -0.580388 245 61 207
-2.102187 0.373342 -0.584731 245 61 207
-2.096820 0.353919 -0.579119 245 61 206
-2.109957 0.317524 -0.583511 245 61 206
-2.108407 0.308716 -0.590836 245 61 205
-2.073889 0.266678 -0.611241 245 61 204
-2.067959 0.253556 -0.608265 245 61 204
-2.098910 0.212522 -0.609817 245 61 203
-2.093185 0.195023 -0.587171 245 61 203
-2.078242 0.173829 -0.593599 245 61 202
-2.054724 0.138667 -0.597756 245 61 202
-2.056843 0.078734 -0.576217 245 61 201
-2.055435 0.069343 -0.617518 245 61 201
-2.041683 0.068790 -0.606746 245 61 200
-2.011280 0.030384 -0.600415 245 61 199
-2.008924 -0.003762 -0.589536 245 61 199
-1.982689 -0.048922 -0.599592 245 61 198
-1.958526 -0.060038 -0.611112 245 61 198
-1.968693 -0.096193 -0.599294 245 61 197
-1.946129 -0.116687 -0.601072 245 61 197
-1.925733 -0.119134 -0.588521 245 61 196
-1.944705 -0.145236 -0.593684 245 61 196
-1.923787 -0.159532 -0.577357 245 61 195
-1.925042 -0.182148 -0.588869 245 61 194
-1.903684 -0.198023 -0.598025 245 61 194
-1.872466 -0.245113 -0.592450 245 61 193
-1.835675 -0.235036 -0.599279 245 61 193
-1.827883 -0.288809 -0.589171 245 61 192
-1.837900 -0.321687 -0.570718 245 61 192
-1.824814 -0.306036 -0.572098 245 61 191
-1.787733 -0.356956 -0.572404 245 61 191
-1.802846 -0.353028 -0.567143 245 61 190
-1.782795 -0.393844 -0.586803 245 61 190
-1.732432 -0.395941 -0.554494 245 61 189
-1.749140 -0.445656 -0.565914 245 61 188
-1.715826 -0.422899 -0.564331 245 61 188
-1.720020 -0.478966 -0.557683 245 61 187
-1.711643 -0.463696 -0.542835 245 61 187
-1.693025 -0.484070 -0.535871 245 61 186
-1.647267 -0.494564 -0.538547 245 61 186
-1.653960 -0.534010 -0.527522 245 61 185
-1.609525 -0.562691 -0.541663 245 61 185
-1.599019 -0.571943 -0.509328 245 61 184
-1.597402 -0.604196 -0.510642 245 61 183
-1.590186 -0.618446 -0.524379 245 61 183
-1.549624 -0.611792 -0.518773 245 61 182
-1.526156 -0.633313 -0.482921 245 61 182
-1.530976 -0.665828 -0.478774 245 61 181
-1.521829 -0.654476 -0.493034 245 61 181
-1.474145 -0.679915 -0.475569 245 61 180
-1.474871 -0.703234 -0.451362 245 61 180
-1.438319 -0.732131 -0.467341 245 61 179
-1.436032 -0.713378 -0.467645 245 61 179
-1.421767 -0.727596 -0.460368 245 61 178
-1.428171 -0.766884 -0.433632 245 61 177
-1.382024 -0.789877 -0.449377 245 61 177
-1.395361 -0.777034 -0.414811 245 61 176
-1.346283 -0.804837 -0.418925 245 61 176
-1.360851 -0.780264 -0.419303 245 61 175
-1.304498 -0.827440 -0.402446 245 61 175
-1.306903 -0.853573 -0.409146 245 61 174
-1.267578 -0.855335 -0.389733 245 61 174
-1.265412 -0.860496 -0.396687 245 61 173
-1.266469 -0.867389 -0.353386 245 61 172
-1.227418 -0.863864 -0.344591 245 61 172
-1.204525 -0.877813 -0.365473 245 61 171
-1.210671 -0.890855 -0.353012 245 61 171
-1.198369 -0.892959 -0.349424 245 61 170
-1.184152 -0.921713 -0.340720 245 61 170
-1.145164 -0.912839 -0.333991 245 61 169
-1.165091 -0.970281 -0.322827 245 61 169
-1.151278 -0.938559 -0.292802 245 61 168
-1.129468 -0.983211 -0.276751 245 61 168
-1.095087 -0.978844 -0.255238 245 61 167
-1.099001 -0.997025 -0.260024 245 61 166
-1.038806 -1.005023 -0.246688 245 61 166
-1.064731 -0.996993 -0.257912 245 61 165
-1.053029 -1.022333 -0.243543 245 61 165
-1.025163 -1.047765 -0.236631 245 61 164
-0.988779 -1.013307 -0.222489 245 61 164
-0.969938 -1.063643 -0.226850 245 61 163
-0.965594 -1.049975 -0.205367 245 61 163
-0.967294 -1.080900 -0.164908 245 61 162
-0.936459 -1.058737 -0.156826 245 61 161
-0.899266 -1.088033 -0.146678 245 61 161
-0.904287 -1.086952 -0.126879 245 61 160
-0.908566 -1.095106 -0.151394 245 61 160
-0.859693 -1.095698 -0.108854 245 61 159
-0.862834 -1.126545 -0.134860 245 61 159
-0.857294 -1.115139 -0.099906 245 61 158
-0.821896 -1.157787 -0.109317 245 61 158
-0.828416 -1.169255 -0.084832 245 61 157
-0.782651 -1.159717 -0.070109 245 61 156
-0.762703 -1.183660 -0.065465 245 61 156
-0.744230 -1.184906 -0.041275 245 61 155
-0.731853 -1.179914 -0.027735 245 61 155
-0.742712 -1.177993 -0.044190 245 61 154
-0.718882 -1.184875 -0.008601 245 61 154
-0.713179 -1.231015 -0.021172 245 61 153
-0.674257 -1.230983 0.019003 245 61 153
-0.665726 -1.211823 0.001432 245 61 152
-0.675943 -1.236476 0.038220 245 61 152
-0.656596 -1.229307 0.054821 245 61 151
-0.634546 -1.235666 0.036872 245 61 150
-0.619606 -1.270165 0.076281 245 61 150
-0.613864 -1.251224 0.090410 245 61 149
-0.559953 -1.273147 0.080102 245 61 149
-0.575052 -1.305193 0.101282 245 61 148
-0.548757 -1.289563 0.099033 245 61 148
-0.512927 -1.315201 0.096769 245 61 147
-0.519234 -1.298676 0.127775 245 61 147
-0.525786 -1.316617 0.153196 245 61 146
-0.498992 -1.319295 0.176667 245 61 145
-0.492911 -1.356652 0.170140 245 61 145
-0.447466 -1.329950 0.195950 245 61 144
-0.421361 -1.344527 0.165969 245 61 144
-0.402877 -1.374908 0.217266 245 61 143
-0.408052 -1.374436 0.183595 245 61 143
-0.394377 -1.383911 0.218322 245 61 142
-0.355352 -1.416079 0.238984 245 61 142
-0.378261 -1.407253 0.259331 245 61 141
-0.353826 -1.422901 0.232026 245 61 141
-0.303758 -1.441877 0.271791 245 61 140
-0.330312 -1.409943 0.270499 245 61 139
-0.294992 -1.431567 0.283015 245 61 139
-0.257782 -1.442083 0.307340 245 61 138
-0.278700 -1.460765 0.277169 245 61 138
-0.241578 -1.476592 0.328075 245 61 137
-0.244138 -1.462096 0.314169 245 61 137
-0.227212 -1.467253 0.330045 245 61 136
-0.193734 -1.505613 0.326601 245 61 136
-0.180114 -1.499979 0.328024 245 61 135
-0.154128 -1.507450 0.345509 245 61 134
-0.144725 -1.501256 0.374867 245 61 134
-0.115623 -1.548524 0.392623 245 61 133
-0.085007 -1.544653 0.397229 245 61 133
-0.076313 -1.522974 0.402984 245 61 132
-0.061398 -1.572999 0.387576 245 61 132
-0.047186 -1.562675 0.423568 245 61 131
-0.016988 -1.550564 0.433478 245 61 131
-0.022907 -1.587388 0.405282 245 61 130
0.023191 -1.568674 0.424397 245 61 129
0.042580 -1.575987 0.424572 245 61 129
0.046081 -1.575567 0.428207 245 61 128
0.088216 -1.598123 0.456660 245 61 128
0.095688 -1.625979 0.450701 245 61 127
0.126026 -1.619600 0.474664 245 61 127
0.124891 -1.608845 0.479178 245 61 126
0.180949 -1.618273 0.506925 245 61 126
0.203048 -1.658703 0.466755 245 61 125
0.188605 -1.647332 0.506474 245 61 125
0.246369 -1.673211 0.485321 245 61 124
0.251829 -1.658944 0.514473 245 61 123
0.267724 -1.644821 0.533774 245 61 123
0.281294 -1.670441 0.496337 245 61 122
0.295804 -1.660613 0.525676 245 61 122
0.328111 -1.696893 0.549057 245 61 121
0.385558 -1.705444 0.544932 245 61 121
0.394591 -1.679589 0.545117 245 61 120
0.431693 -1.718171 0.567854 245 61 120
0.418447 -1.705446 0.565442 245 61 119
0.474479 -1.695994 0.534896 245 61 118
0.502074 -1.731194 0.545178 245 61 118
0.491107 -1.711952 0.545248 245 61 117
0.534907 -1.715704 0.548210 245 61 117
0.580808 -1.734709 0.563349 245 61 116
0.592261 -1.745160 0.567377 245 61 116
0.619132 -1.750473 0.572073 245 61 115
0.660283 -1.726239 0.570655 245 61 115
0.661089 -1.726962 0.597505 245 61 114
0.672925 -1.755023 0.562526 245 61 114
0.714588 -1.761294 0.588410 245 61 113
0.742972 -1.751127 0.592132 245 61 112
0.749254 -1.753848 0.591971 245 61 112
0.797980 -1.766342 0.616532 245 61 111
0.832223 -1.747240 0.591413 245 61 111
0.829790 -1.757800 0.578076 245 61 110
0.851464 -1.751532 0.593064 245 61 110
0.924281 -1.751443 0.619188 245 61 109
0.935980 -1.731902 0.615346 245 61 109
0.955159 -1.756988 0.586422 245 61 108
0.999647 -1.749389 0.575597 245 61 107
1.015717 -1.721451 0.583464 245 61 107
1.019711 -1.716944 0.585590 245 61 106
1.067945 -1.705515 0.596771 245 61 106
1.073622 -1.697312 0.613401 245 61 105
1.128489 -1.733878 0.613470 245 61 105
1.160491 -1.731373 0.615024 245 61 104
1.198229 -1.687825 0.596282 245 61 104
1.206006 -1.693784 0.573786 245 61 103
